ply
		format ascii 1.0
		element vertex 281
		property float x
		property float y
		property float z
		property uchar blue
		property uchar green
		property uchar red
		end_header
		-788.970232 -78.060013 2182.196236 196 187 180
-802.874374 154.773855 2239.662552 111 115 115
-780.779076 -113.368177 2245.440865 157 161 163
-780.109119 -433.344507 2252.272034 185 179 175
-780.109119 -433.344507 2252.272034 185 179 175
-759.953165 -38.424703 2274.233437 110 97 89
-754.040766 19.989629 2264.334679 181 177 175
-726.861429 -408.758163 2237.539864 150 137 126
-726.019573 74.497086 2279.092979 175 183 190
-677.366209 -424.974203 2243.552208 198 194 193
-665.527868 -479.874086 2223.954391 77 77 73
-666.160107 -241.253734 2305.278778 149 163 171
-595.907593 116.566455 2348.341751 40 38 40
-593.349314 -167.499542 2385.689354 13 14 14
-578.304291 -232.129073 2341.530609 47 63 65
-569.910622 152.044463 2335.563469 143 136 134
-529.487419 218.191290 2180.570984 172 172 171
-455.607033 -236.470270 2286.154366 133 136 136
-408.969927 -160.572958 2267.109871 152 148 142
-395.098233 218.495727 2201.918411 101 103 102
-392.684889 -26.305643 2278.395271 120 110 104
-390.944242 40.566573 2284.146309 120 113 110
-329.944444 227.419066 2198.968887 156 157 163
-809.769058 -499.389410 2249.803352 39 41 40
-804.682159 93.585074 2244.333649 129 132 134
-768.326998 -501.500130 2229.455185 43 45 41
-761.309242 165.429175 2255.813408 110 114 117
-754.322004 -185.060561 2255.577087 135 138 140
-704.439211 283.250713 2110.165405 150 149 148
-721.146345 -136.383343 2288.029289 157 170 179
-721.146345 -136.383343 2288.029289 157 170 179
-721.359825 -135.967553 2294.216728 157 170 179
-681.318855 283.691621 2104.807854 143 143 144
-670.702267 -425.549650 2233.582497 188 185 183
-665.979385 -481.321096 2228.126717 59 62 61
-605.653191 -445.478058 2197.091484 152 149 148
-605.653191 -445.478058 2197.091484 152 149 148
-595.862818 115.605593 2347.640228 41 42 46
-551.433325 -108.882713 2332.741928 58 55 56
-468.386173 -175.241125 2318.097687 98 100 99
-455.956602 -240.596199 2314.436722 138 141 141
-452.808285 -192.315972 2294.912338 142 140 137
-442.851782 132.783186 2285.146332 99 88 81
-434.776163 -361.301589 2219.744301 34 50 63
-425.812769 -188.239181 2289.346695 88 89 88
-412.615395 85.526478 2272.416115 169 164 161
-411.254692 -98.841119 2278.358459 160 161 161
-408.230114 231.629872 2158.986282 203 199 199
-345.226836 -360.171628 2208.972168 142 138 133
-332.870507 -233.896470 2191.280746 108 114 113
-308.563542 -111.993730 2282.982635 201 203 205
-297.376537 160.877097 2229.955673 226 222 222
-296.227074 -26.638165 2243.758202 211 207 207
-292.605853 140.217376 2238.212013 149 144 141
-289.913058 231.257987 2155.863380 153 150 153
-819.326878 -324.654555 2288.856888 144 136 134
-818.655872 -396.679997 2297.385597 141 136 135
-761.480999 165.510690 2259.402466 108 112 114
-752.952194 -372.671247 2260.077477 210 206 205
-729.913521 -174.349129 2295.632553 67 78 81
-729.913521 -174.349129 2295.632553 67 78 81
-721.425104 -138.865113 2293.149567 166 176 185
-670.718193 -425.473261 2237.420654 197 194 193
-657.266283 -108.422077 2330.971336 192 195 198
-627.723169 -463.846016 2235.538864 193 189 186
-627.723169 -463.846016 2235.538864 193 189 186
-550.143576 51.166904 2308.800888 56 54 58
-458.961153 -241.106772 2281.158066 119 120 119
-444.954014 84.402806 2281.528664 154 150 148
-414.377117 84.457493 2255.572891 167 161 157
-379.131031 -64.718091 2224.184227 148 144 142
-378.390837 -38.463470 2221.868706 156 155 156
-356.102896 -495.687103 2202.711105 122 112 102
-320.445561 -255.632687 2196.169090 207 207 208
-319.350934 -357.833433 2208.716393 204 204 204
-803.276348 30.506855 2272.652435 124 121 118
-801.845741 -512.897730 2314.774513 39 41 39
-792.835522 -161.909664 2254.679298 81 91 90
-792.835522 -161.909664 2254.679298 81 91 90
-765.082550 -77.272546 2270.899582 105 104 104
-763.755560 -411.921167 2274.898911 153 146 140
-751.226521 -245.503616 2248.303604 91 92 88
-729.520035 -175.648367 2303.985786 64 77 82
-721.012306 -141.019046 2302.095032 168 178 186
-703.989553 -10.946769 2301.122856 141 150 158
-706.884527 -465.090084 2262.969971 137 138 137
-706.884527 -465.090084 2262.969971 137 138 137
-686.365604 -520.479250 2255.595016 48 56 57
-663.524389 166.830742 2292.794800 144 160 160
-654.690552 123.311055 2307.941628 95 89 87
-645.701122 -511.262131 2244.446754 111 116 116
-645.701122 -511.262131 2244.446754 111 116 116
-628.488541 209.281421 2227.253914 142 145 147
-626.349211 -465.462828 2247.770500 189 185 183
-626.168013 -523.370075 2231.273270 51 59 59
-471.070623 -174.651814 2299.000931 96 100 99
-460.323620 -244.622898 2275.236893 112 115 115
-439.024258 -540.624714 2197.204971 62 72 71
-412.567282 -161.908138 2268.060493 145 144 140
-400.801325 -309.168100 2250.266266 63 62 57
-393.124104 144.715452 2234.148407 131 125 117
-394.525003 75.427496 2221.728706 117 110 106
-379.150891 5.522022 2196.104050 158 154 153
-384.204245 149.264491 2153.746033 151 149 147
-366.875124 -30.045319 2177.918243 110 108 108
-351.593375 -452.235079 2193.122673 166 156 148
-351.593375 -452.235079 2193.122673 166 156 148
-342.748666 -552.028227 2208.411598 45 48 46
-342.748666 -552.028227 2208.411598 45 48 46
-315.030813 -200.846648 2177.953529 209 207 207
-786.443043 133.282006 2258.792305 152 146 145
-786.443043 133.282006 2258.792305 152 146 145
-754.074669 -37.030098 2283.174515 104 93 84
-752.789593 -188.827002 2285.658836 146 148 150
-758.275366 -487.080383 2280.980110 70 71 69
-725.519276 -52.622700 2305.794907 166 177 187
-732.692242 -489.148664 2269.816780 66 67 66
-720.403862 -141.842163 2305.854416 167 177 186
-726.458597 -415.432549 2268.284798 162 145 131
-726.458597 -415.432549 2268.284798 162 145 131
-707.346535 -464.586782 2260.595894 176 175 174
-654.390192 123.548090 2309.362984 94 89 86
-649.030161 -56.783539 2327.200890 151 155 158
-624.315214 74.469447 2333.974266 161 163 166
-578.123188 -378.267121 2286.091614 43 63 68
-578.123188 -378.267121 2286.091614 43 63 68
-551.803541 -106.650507 2331.077957 60 58 62
-537.569427 -531.406927 2209.548187 71 75 73
-472.035408 -174.362612 2295.673752 97 100 99
-500.008154 -517.545509 2200.231361 73 74 73
-454.345942 -189.057124 2286.212730 147 143 140
-439.753151 -509.267378 2196.562576 77 75 71
-413.690996 -252.207160 2221.891022 80 69 62
-401.652527 207.704902 2146.687126 81 77 74
-382.612228 -359.184980 2179.211235 191 189 188
-361.000848 -486.979914 2182.560921 121 110 100
-356.479454 145.183158 2154.833603 97 97 94
-356.310320 -447.620296 2179.779053 160 152 148
-353.117561 -396.398234 2177.323151 160 149 140
-346.259284 -548.145485 2198.546219 58 61 61
-326.349568 -561.751127 2242.512321 58 61 61
-345.041513 -548.839712 2191.157341 46 49 48
-316.191125 151.169872 2161.486053 229 226 227
-316.191125 151.169872 2161.486053 229 226 227
-804.916859 -438.340521 2303.451538 134 121 112
-804.916859 -438.340521 2303.451538 134 121 112
-792.027044 -472.420073 2307.824135 165 163 161
-776.675415 -458.908367 2307.384300 182 180 179
-739.228773 100.017416 2382.283020 157 155 156
-763.256693 -518.699741 2292.178535 40 42 39
-761.497068 167.809856 2258.419991 110 113 116
-725.522089 -218.082142 2319.038010 99 98 96
-724.448538 -53.953046 2310.589409 173 184 193
-717.751217 -143.755257 2316.670036 162 173 182
-725.231457 -417.142391 2273.299980 154 140 128
-704.930687 -467.065001 2269.726372 149 150 149
-692.236662 -413.021469 2264.017296 201 197 196
-692.236662 -413.021469 2264.017296 201 197 196
-662.281418 -487.528467 2258.888626 68 71 69
-618.635941 -170.192206 2347.916412 157 165 171
-575.164032 -379.445863 2294.978333 45 62 68
-571.366167 -524.793482 2248.188972 86 93 93
-526.060486 -165.876746 2300.098038 20 20 19
-516.125345 -351.445913 2269.921684 47 53 54
-489.922523 -173.743916 2315.031433 152 150 148
-471.914291 -175.399518 2296.298409 97 100 99
-460.549212 -382.083082 2207.406425 40 49 55
-437.815523 -266.803741 2206.395912 80 69 61
-421.727991 -55.850250 2233.687019 177 177 177
-416.446400 -366.967511 2183.682060 67 69 72
-363.530970 -484.246969 2176.663780 123 111 100
-347.592092 -224.194431 2140.681458 110 116 115
-316.040111 -392.371964 2191.960144 211 207 208
-804.266930 129.503000 2266.275978 92 93 92
-757.725191 -137.851167 2297.826385 69 80 84
-754.406166 76.894110 2286.396980 92 84 79
-759.743690 169.857311 2263.182449 103 109 112
-724.894476 -53.739530 2309.502411 167 178 188
-725.017738 -298.783350 2315.221596 87 97 98
-716.559696 -145.219779 2320.202065 171 180 188
-704.219341 -73.061198 2321.016502 93 90 90
-724.414921 -418.317509 2275.632095 158 142 128
-701.050520 -10.299115 2314.815331 140 149 157
-687.747145 -301.313734 2314.028168 81 85 84
-706.025076 -466.692924 2266.742516 163 163 163
-658.446836 124.162328 2299.935150 89 83 81
-597.730494 -166.293299 2335.082436 21 22 24
-474.017859 -175.658715 2292.153358 99 101 99
-474.017859 -175.658715 2292.153358 99 101 99
-424.566174 -221.199298 2265.537834 95 84 76
-438.353586 -568.113041 2241.719818 166 160 158
-449.248886 -529.144096 2175.410652 63 72 72
-410.673571 -304.679942 2222.323227 64 64 61
-402.919626 -282.965708 2194.389343 112 134 136
-381.888962 -233.871222 2221.631050 80 80 78
-797.006941 -205.628872 2323.597145 87 89 88
-815.630245 189.537179 2255.463409 187 178 179
-787.140751 -450.659847 2347.104454 130 114 99
-793.086481 79.546022 2301.233101 108 102 98
-802.288914 130.892289 2271.082306 89 91 90
-788.881397 -346.213627 2303.513336 192 192 192
-774.300861 187.340975 2259.287453 169 176 181
-759.169149 148.569560 2267.569351 166 173 174
-731.898165 -399.802041 2323.442078 210 206 204
-713.006449 -146.788180 2328.359985 163 174 182
-737.825060 187.263489 2244.895554 160 160 162
-725.875521 -496.780300 2289.087296 65 67 65
-702.058411 -469.543266 2275.388527 159 159 159
-663.295507 168.064439 2293.791962 147 159 159
-653.304243 124.873149 2310.833549 92 86 84
-669.659185 -427.915144 2253.945541 209 206 206
-595.051527 -166.760349 2340.523911 20 20 21
-642.057753 -513.250875 2250.470924 125 129 128
-572.556734 -379.234719 2298.544884 47 66 73
-558.898020 145.463741 2288.721848 139 130 126
-546.264744 -563.492155 2282.859039 157 155 152
-490.959454 78.965104 2300.819397 129 119 112
-404.295206 67.254984 2202.310753 121 113 108
-336.964369 -108.693969 2158.577347 205 203 203
-326.013851 -385.817647 2174.923706 208 206 205
-333.329916 -28.738546 2153.123856 209 205 205
-298.865724 -441.072226 2203.249931 220 216 214
-331.970859 -166.568053 2150.849724 195 195 196
-346.152401 -191.617310 2122.187996 203 203 202
-334.918785 142.759693 2126.304245 218 217 219
-350.154376 204.387665 2101.943970 151 150 155
-770.262814 -316.273093 2399.233437 138 121 108
-845.779419 -321.895576 2233.811569 150 133 119
-769.332457 -515.748978 2405.962563 39 38 36
-819.968128 -356.704926 2149.596214 212 207 205
-688.688517 -351.438189 2322.208405 57 73 76
-775.046492 -369.774103 2158.316803 214 208 205
-775.046492 -369.774103 2158.316803 214 208 205
-741.292334 -444.228888 2205.815315 201 197 193
-741.292334 -444.228888 2205.815315 201 197 193
-753.532410 -442.883873 2179.326630 178 175 173
-763.963079 -381.334782 2094.735336 213 209 208
-428.870249 -202.291703 2629.101181 19 22 23
-273.672819 -30.920351 2646.987915 149 143 139
-447.952461 -413.820887 2347.118759 35 48 50
-330.512547 -286.197329 2467.970276 104 110 110
-357.221270 136.923397 2402.013588 110 95 85
-425.319624 -591.824293 2332.698441 156 155 153
-290.153980 -116.613269 2426.567459 163 163 163
-390.212226 -375.476265 2267.517281 37 42 49
-362.782788 143.311369 2216.163826 148 147 144
-362.782788 143.311369 2216.163826 148 147 144
-583.651352 200.279212 1914.741135 184 179 178
-484.637356 185.769951 2031.790543 90 85 79
-484.637356 185.769951 2031.790543 90 85 79
-323.615980 -494.728518 2229.792595 132 117 106
-323.615980 -494.728518 2229.792595 132 117 106
-290.023875 -563.860798 2269.351768 53 56 55
-819.511700 -429.270267 2332.205391 173 160 150
-864.565277 -300.936389 2228.907967 182 170 164
-844.931698 -391.157532 2234.113693 150 134 120
-819.318104 -446.592522 2223.808670 162 162 163
-864.057159 -76.739728 2115.033340 180 179 179
-811.282539 -261.784315 2214.960289 193 195 197
-871.623898 6.074052 2082.152748 170 173 177
-840.624905 -349.467826 2109.740639 217 211 208
-814.613152 -227.736187 2131.223297 80 79 76
-861.112309 196.359527 2018.707848 103 106 105
-764.791155 -376.197958 2176.717567 220 214 210
-700.554848 88.723516 2278.996468 175 176 179
-700.554848 88.723516 2278.996468 175 176 179
-752.458382 -445.464706 2181.001472 174 173 172
-486.792660 -189.796937 2530.644035 22 23 27
-675.311089 -496.029997 2189.736366 125 129 128
-493.978786 -254.459953 2482.090759 53 73 76
-473.523617 54.892451 2449.293709 59 56 57
-619.237280 -434.505463 2185.887337 205 200 198
-285.715699 -213.134098 2707.382011 24 23 24
-285.715699 -213.134098 2707.382011 24 23 24
-313.621426 48.114005 2559.905815 142 134 130
-266.475224 -155.978131 2464.389038 162 160 158
-254.120803 -189.781177 2481.608772 150 146 140
-479.057169 -402.360058 2103.792953 207 201 197
-433.254576 188.859677 2098.329735 95 89 84
-141.648102 -564.931297 2464.331818 131 115 104
-461.305428 207.310247 2012.845421 198 192 192
